//X Y Z R G B Nx Ny Nz
59.30500031 -53.21775055 11.70324993 255 107 4 0.000000 0.000000 0.000000
59.12500000 -53.53725052 11.70499992 255 106 4 0.000000 0.000000 0.000000
59.12699890 -53.48075104 11.70425034 255 106 4 0.000000 0.000000 0.000000
59.10025024 -53.25799942 11.66699982 255 105 4 0.000000 0.000000 0.000000
58.96699905 -53.42224884 11.92300034 255 105 4 0.000000 0.000000 0.000000
58.98925018 -53.16849899 11.80099964 255 105 4 0.000000 0.000000 0.000000
59.40549850 -52.94950104 11.47649956 255 107 3 0.000000 0.000000 0.000000
59.37474823 -52.93624878 11.50424957 255 107 4 0.000000 0.000000 0.000000
59.05250168 -53.10599899 11.56474972 255 105 4 0.000000 0.000000 0.000000
59.14625168 -52.88275146 11.71125031 255 106 4 0.000000 0.000000 0.000000
59.32424927 -53.17625046 11.73750019 255 107 4 0.000000 0.000000 0.000000
59.31200027 -52.98374939 11.73250008 255 107 4 0.000000 0.000000 0.000000
59.09899902 -52.79375076 11.72500038 255 105 4 0.000000 0.000000 0.000000
58.84799957 -53.61024857 11.59724998 255 104 4 0.000000 0.000000 0.000000
58.78150177 -53.57199860 11.64449978 255 104 4 0.000000 0.000000 0.000000
58.85800171 -53.42375183 11.70300007 255 104 4 0.000000 0.000000 0.000000
58.79050064 -53.37424850 11.67199993 255 104 4 0.000000 0.000000 0.000000
58.77474976 -53.42200089 11.82149982 255 104 4 0.000000 0.000000 0.000000
58.86624908 -53.30500031 11.82975006 255 104 4 0.000000 0.000000 0.000000
58.43700027 -53.15549850 11.90275002 255 102 4 0.000000 0.000000 0.000000
58.90625000 -53.06800079 11.71175003 255 104 4 0.000000 0.000000 0.000000
58.78725052 -53.05799866 12.28024960 255 104 4 0.000000 0.000000 0.000000
59.65575027 -51.93375015 10.72074986 255 108 3 0.000000 0.000000 0.000000
59.63999939 -51.89849854 10.78075027 255 108 3 0.000000 0.000000 0.000000
59.62625122 -51.88525009 10.80224991 255 108 3 0.000000 0.000000 0.000000
59.59175110 -51.85699844 10.79650021 255 108 3 0.000000 0.000000 0.000000
59.48925018 -52.49174881 11.00650024 255 107 3 0.000000 0.000000 0.000000
59.55625153 -52.49375153 11.06499958 255 108 3 0.000000 0.000000 0.000000
59.51300049 -52.53725052 11.30150032 255 108 3 0.000000 0.000000 0.000000
59.72024918 -50.70000076 10.65550041 255 109 3 0.000000 0.000000 0.000000
58.60974884 -52.11724854 10.76949978 255 103 4 0.000000 0.000000 0.000000
58.60049820 -52.09049988 10.89200020 255 103 4 0.000000 0.000000 0.000000
58.60150146 -52.07249832 10.90425014 255 103 4 0.000000 0.000000 0.000000
59.45574951 -51.69874954 10.98875046 255 107 3 0.000000 0.000000 0.000000
58.74800110 -50.86024857 10.61400032 255 103 4 0.000000 0.000000 0.000000
58.71524811 -50.90425110 10.71574974 255 103 4 0.000000 0.000000 0.000000
58.68724823 -50.86674881 10.69649982 255 103 4 0.000000 0.000000 0.000000
58.70299911 -50.87400055 10.70724964 255 103 4 0.000000 0.000000 0.000000
58.65924835 -50.88399887 10.84475040 255 103 4 0.000000 0.000000 0.000000
59.33399963 -50.68724823 11.38125038 255 106 4 0.000000 0.000000 0.000000
59.11574936 -50.70875168 11.41199970 255 105 4 0.000000 0.000000 0.000000
60.11674881 -51.97624969 11.69250011 255 111 3 0.000000 0.000000 0.000000
60.08900070 -51.97325134 11.86674976 255 110 3 0.000000 0.000000 0.000000
60.10774994 -52.36074829 12.09774971 255 110 3 0.000000 0.000000 0.000000
60.14550018 -52.37900162 12.18050003 255 111 3 0.000000 0.000000 0.000000
60.16400146 -52.69599915 12.36999989 255 111 3 0.000000 0.000000 0.000000
59.85900116 -52.39225006 12.00924969 255 109 3 0.000000 0.000000 0.000000
59.79499817 -52.39350128 11.97574997 255 109 3 0.000000 0.000000 0.000000
59.84749985 -52.37300110 12.12275028 255 109 3 0.000000 0.000000 0.000000
59.83024979 -52.40325165 12.10750008 255 109 3 0.000000 0.000000 0.000000
59.80125046 -52.35599899 12.20699978 255 109 3 0.000000 0.000000 0.000000
59.79999924 -52.28125000 12.11874962 255 109 3 0.000000 0.000000 0.000000
59.69950104 -52.45650101 12.13175011 255 108 3 0.000000 0.000000 0.000000
59.73374939 -52.43899918 12.22200012 255 109 3 0.000000 0.000000 0.000000
59.71749878 -52.39950180 12.21350002 255 108 3 0.000000 0.000000 0.000000
59.78250122 -52.52050018 12.24050045 255 109 3 0.000000 0.000000 0.000000
58.70925140 -52.16350174 12.19324970 255 103 4 0.000000 0.000000 0.000000
58.71125031 -52.14099884 12.23799992 255 103 4 0.000000 0.000000 0.000000
58.59875107 -52.13874817 12.28250027 255 103 4 0.000000 0.000000 0.000000
58.58200073 -52.22375107 12.39025021 255 103 4 0.000000 0.000000 0.000000
58.55550003 -51.99100113 12.17650032 255 102 4 0.000000 0.000000 0.000000
58.61700058 -52.10200119 12.24524975 255 103 4 0.000000 0.000000 0.000000
58.57199860 -52.03525162 12.21899986 255 102 4 0.000000 0.000000 0.000000
58.63600159 -52.06375122 12.25599957 255 103 4 0.000000 0.000000 0.000000
59.23625183 -51.22200012 11.81225014 255 106 4 0.000000 0.000000 0.000000
59.18849945 -51.21250153 11.81949997 255 106 4 0.000000 0.000000 0.000000
59.29774857 -51.31000137 11.95699978 255 106 4 0.000000 0.000000 0.000000
59.31774902 -51.22475052 11.97974968 255 106 4 0.000000 0.000000 0.000000
59.15599823 -51.26274872 11.92949963 255 105 4 0.000000 0.000000 0.000000
59.25550079 -50.90774918 11.69250011 255 106 4 0.000000 0.000000 0.000000
59.11175156 -51.03850174 11.72299957 255 105 4 0.000000 0.000000 0.000000
59.28900146 -50.85499954 11.63449955 255 106 4 0.000000 0.000000 0.000000
59.39324951 -50.75125122 11.92724991 255 107 4 0.000000 0.000000 0.000000
59.42525101 -50.71599960 11.95300007 255 107 4 0.000000 0.000000 0.000000
59.45650101 -50.69174957 11.99125004 255 107 4 0.000000 0.000000 0.000000
59.24449921 -50.94974899 11.81324959 255 106 4 0.000000 0.000000 0.000000
59.30350113 -51.12324905 11.97224998 255 106 4 0.000000 0.000000 0.000000
59.35374832 -51.01774979 11.97224998 255 106 4 0.000000 0.000000 0.000000
59.34099960 -50.93299866 11.93550014 255 106 4 0.000000 0.000000 0.000000
59.35800171 -50.79475021 11.89649963 255 106 4 0.000000 0.000000 0.000000
59.06499863 -51.04750061 11.70425034 255 105 4 0.000000 0.000000 0.000000
59.01475143 -51.08874893 11.69699955 255 105 4 0.000000 0.000000 0.000000
59.08599854 -50.90425110 11.65925026 255 105 4 0.000000 0.000000 0.000000
59.06999969 -50.87450027 11.64999962 255 105 4 0.000000 0.000000 0.000000
58.99575043 -50.78599930 11.69400024 255 104 4 0.000000 0.000000 0.000000
58.96500015 -50.79624939 11.71100044 255 104 4 0.000000 0.000000 0.000000
58.78725052 -50.59524918 11.68824959 255 103 4 0.000000 0.000000 0.000000
58.99150085 -50.96749878 11.80725002 255 104 4 0.000000 0.000000 0.000000
58.97325134 -51.02099991 11.84350014 255 104 4 0.000000 0.000000 0.000000
58.98025131 -50.93550110 11.97175026 255 104 4 0.000000 0.000000 0.000000
58.96725082 -50.79574966 11.80000019 255 104 4 0.000000 0.000000 0.000000
58.98025131 -50.83050156 11.81575012 255 104 4 0.000000 0.000000 0.000000
58.98324966 -50.83950043 11.94900036 255 104 4 0.000000 0.000000 0.000000
58.94124985 -50.69424820 11.89875031 255 104 4 0.000000 0.000000 0.000000
58.91374969 -50.62749863 11.90450001 255 104 4 0.000000 0.000000 0.000000
58.65224838 -50.84424973 11.78824997 255 103 4 0.000000 0.000000 0.000000
58.74625015 -50.82249832 11.78899956 255 103 4 0.000000 0.000000 0.000000
58.82424927 -50.60350037 11.90400028 255 103 4 0.000000 0.000000 0.000000
58.74024963 -50.75574875 11.96500015 255 103 4 0.000000 0.000000 0.000000
59.36550140 -51.31874847 12.07874966 255 107 4 0.000000 0.000000 0.000000
59.39725113 -51.27500153 12.08675003 255 107 4 0.000000 0.000000 0.000000
59.38425064 -51.25725174 12.10050011 255 107 4 0.000000 0.000000 0.000000
59.41424942 -51.31850052 12.12574959 255 107 4 0.000000 0.000000 0.000000
59.31999969 -51.18149948 12.01749992 255 106 4 0.000000 0.000000 0.000000
59.35449982 -51.16799927 12.16524982 255 106 4 0.000000 0.000000 0.000000
59.35699844 -51.14374924 12.23274994 255 106 4 0.000000 0.000000 0.000000
59.50624847 -50.64300156 12.03674984 255 107 3 0.000000 0.000000 0.000000
59.36550140 -50.74874878 12.13549995 255 106 4 0.000000 0.000000 0.000000
58.94525146 -51.14775085 12.10900021 255 104 4 0.000000 0.000000 0.000000
58.98949814 -51.23350143 12.13850021 255 104 4 0.000000 0.000000 0.000000
59.05899811 -51.09375000 12.11250019 255 105 4 0.000000 0.000000 0.000000
58.97674942 -51.08300018 12.06875038 255 104 4 0.000000 0.000000 0.000000
58.96549988 -50.96599960 12.00000000 255 104 4 0.000000 0.000000 0.000000
61.51324844 -54.14775085 12.56999969 255 117 1 0.000000 0.000000 0.000000
61.51425171 -54.14825058 12.61324978 255 117 1 0.000000 0.000000 0.000000
61.51575089 -54.13225174 12.70450020 255 117 1 0.000000 0.000000 0.000000
61.57849884 -53.53125000 12.63274956 255 118 1 0.000000 0.000000 0.000000
61.57175064 -53.39125061 12.59675026 255 118 1 0.000000 0.000000 0.000000
61.52199936 -53.38949966 12.65400028 255 117 1 0.000000 0.000000 0.000000
61.69324875 -53.13550186 12.59475040 255 118 1 0.000000 0.000000 0.000000
61.67649841 -53.15900040 12.61800003 255 118 1 0.000000 0.000000 0.000000
61.51625061 -53.25775146 12.64074993 255 117 1 0.000000 0.000000 0.000000
61.79875183 -53.07474899 12.78999996 255 119 1 0.000000 0.000000 0.000000
60.54475021 -54.37549973 13.10025024 255 112 2 0.000000 0.000000 0.000000
60.54175186 -54.28400040 13.01725006 255 112 2 0.000000 0.000000 0.000000
60.55950165 -54.09049988 13.07250023 255 113 2 0.000000 0.000000 0.000000
60.48849869 -54.19274902 13.00850010 255 112 2 0.000000 0.000000 0.000000
60.45824814 -54.31850052 13.09574986 255 112 2 0.000000 0.000000 0.000000
60.57249832 -53.88150024 13.00349998 255 113 2 0.000000 0.000000 0.000000
60.57350159 -53.90900040 13.03349972 255 113 2 0.000000 0.000000 0.000000
61.45325089 -53.43650055 12.62174988 255 117 1 0.000000 0.000000 0.000000
61.43349838 -53.39649963 12.64200020 255 117 1 0.000000 0.000000 0.000000
61.33150101 -53.36100006 12.63300037 255 117 2 0.000000 0.000000 0.000000
61.23075104 -53.35350037 12.67549992 255 116 2 0.000000 0.000000 0.000000
61.08399963 -53.55699921 12.61725044 255 115 2 0.000000 0.000000 0.000000
61.09899902 -53.48075104 12.61050034 255 115 2 0.000000 0.000000 0.000000
61.33349991 -53.36750031 12.71049976 255 117 2 0.000000 0.000000 0.000000
61.39524841 -53.30099869 12.50249958 255 117 2 0.000000 0.000000 0.000000
61.34349823 -53.27925110 12.52149963 255 117 2 0.000000 0.000000 0.000000
61.44900131 -53.29600143 12.66300011 255 117 1 0.000000 0.000000 0.000000
61.38150024 -52.86024857 12.59949970 255 117 2 0.000000 0.000000 0.000000
61.24425125 -53.25325012 12.62699986 255 116 2 0.000000 0.000000 0.000000
60.90999985 -53.49250031 12.48425007 255 114 2 0.000000 0.000000 0.000000
60.50775146 -53.30625153 12.64074993 255 112 2 0.000000 0.000000 0.000000
60.56349945 -53.30974960 12.88949966 255 113 2 0.000000 0.000000 0.000000
60.98450089 -53.10725021 12.47999954 255 115 2 0.000000 0.000000 0.000000
60.78850174 -52.98875046 12.71074963 255 114 2 0.000000 0.000000 0.000000
60.78549957 -52.85599899 12.67749977 255 114 2 0.000000 0.000000 0.000000
60.50674820 -53.27899933 12.61174965 255 112 2 0.000000 0.000000 0.000000
60.73699951 -53.00325012 12.66950035 255 114 2 0.000000 0.000000 0.000000
60.64324951 -53.53675079 13.33724976 255 113 2 0.000000 0.000000 0.000000
61.77774811 -53.21450043 14.47299957 255 119 1 0.000000 0.000000 0.000000
61.79925156 -52.91675186 14.45174980 255 119 1 0.000000 0.000000 0.000000
61.62974930 -52.81299973 12.63475037 255 118 1 0.000000 0.000000 0.000000
61.56250000 -52.81200027 12.61075020 255 118 1 0.000000 0.000000 0.000000
61.17824936 -52.82975006 12.54100037 255 116 2 0.000000 0.000000 0.000000
61.32524872 -51.08700180 12.95825005 255 117 2 0.000000 0.000000 0.000000
60.69749832 -51.73875046 12.60599995 255 113 2 0.000000 0.000000 0.000000
60.90774918 -51.61175156 12.76700020 255 115 2 0.000000 0.000000 0.000000
61.00049973 -51.40349960 12.84675026 255 115 2 0.000000 0.000000 0.000000
61.06900024 -50.80274963 12.48149967 255 116 2 0.000000 0.000000 0.000000
60.99800110 -51.27099991 12.88774967 255 115 2 0.000000 0.000000 0.000000
61.16725159 -51.72449875 13.45149994 255 116 2 0.000000 0.000000 0.000000
61.19075012 -51.12725067 13.21249962 255 116 2 0.000000 0.000000 0.000000
60.72299957 -51.02624893 13.40575027 255 114 2 0.000000 0.000000 0.000000
60.69274902 -51.00325012 13.42975044 255 113 2 0.000000 0.000000 0.000000
61.76425171 -52.31750107 14.21525002 255 119 1 0.000000 0.000000 0.000000
61.80125046 -52.36125183 14.29675007 255 119 1 0.000000 0.000000 0.000000
61.79975128 -52.33324814 14.30399990 255 119 1 0.000000 0.000000 0.000000
61.81874847 -52.36175156 14.32724953 255 119 1 0.000000 0.000000 0.000000
61.68275070 -51.72275162 14.11375046 255 118 1 0.000000 0.000000 0.000000
61.71324921 -51.66324997 14.15625000 255 119 1 0.000000 0.000000 0.000000
61.71250153 -51.61524963 14.21049976 255 119 1 0.000000 0.000000 0.000000
61.74475098 -51.57749939 14.21949959 255 119 1 0.000000 0.000000 0.000000
61.78250122 -51.62300110 14.35299969 255 119 1 0.000000 0.000000 0.000000
61.80799866 -51.51399994 14.28050041 255 119 1 0.000000 0.000000 0.000000
60.70949936 -52.35924911 13.96924973 255 113 2 0.000000 0.000000 0.000000
60.64450073 -52.39950180 13.96224976 255 113 2 0.000000 0.000000 0.000000
60.58050156 -52.38150024 13.95849991 255 113 2 0.000000 0.000000 0.000000
60.64599991 -51.81850052 13.64124966 255 113 2 0.000000 0.000000 0.000000
60.88100052 -52.21200180 13.84675026 255 114 2 0.000000 0.000000 0.000000
60.63874817 -52.12125015 13.87600040 255 113 2 0.000000 0.000000 0.000000
60.62575150 -52.15800095 13.90674973 255 113 2 0.000000 0.000000 0.000000
60.61750031 -52.71699905 14.00024986 255 113 2 0.000000 0.000000 0.000000
60.74625015 -52.49499893 14.06050014 255 113 2 0.000000 0.000000 0.000000
60.59700012 -52.41225052 14.04850006 255 113 2 0.000000 0.000000 0.000000
60.58924866 -52.36724854 14.29850006 255 113 2 0.000000 0.000000 0.000000
60.73149872 -52.23574829 14.21599960 255 113 2 0.000000 0.000000 0.000000
60.79325104 -52.12424850 14.19425011 255 114 2 0.000000 0.000000 0.000000
60.71324921 -52.26224899 14.16849995 255 113 2 0.000000 0.000000 0.000000
60.68299866 -52.23500061 14.21224976 255 113 2 0.000000 0.000000 0.000000
60.75424957 -51.91875076 14.05274963 255 114 2 0.000000 0.000000 0.000000
60.73775101 -51.86875153 14.10525036 255 113 2 0.000000 0.000000 0.000000
61.28775024 -50.90200043 13.63000011 255 117 2 0.000000 0.000000 0.000000
60.98324966 -51.73225021 13.75574970 255 115 2 0.000000 0.000000 0.000000
60.89300156 -51.77199936 13.95825005 255 114 2 0.000000 0.000000 0.000000
60.70849991 -51.27099991 13.88099957 255 113 2 0.000000 0.000000 0.000000
60.76499939 -51.22525024 13.69624996 255 114 2 0.000000 0.000000 0.000000
60.94775009 -50.79875183 13.89575005 255 115 2 0.000000 0.000000 0.000000
61.60100174 -51.28824997 14.19099998 255 118 1 0.000000 0.000000 0.000000
61.58575058 -51.30500031 14.20275021 255 118 1 0.000000 0.000000 0.000000
61.59949875 -51.19575119 14.28374958 255 118 1 0.000000 0.000000 0.000000
61.05875015 -51.26599884 14.06175041 255 115 2 0.000000 0.000000 0.000000
60.86199951 -50.93375015 14.10974979 255 114 2 0.000000 0.000000 0.000000
60.86074829 -50.87125015 14.11425018 255 114 2 0.000000 0.000000 0.000000
59.65325165 -53.81349945 12.60949993 255 108 3 0.000000 0.000000 0.000000
60.37450027 -53.90349960 13.26924992 255 112 3 0.000000 0.000000 0.000000
60.44049835 -53.81600189 13.30475044 255 112 3 0.000000 0.000000 0.000000
60.18624878 -53.81449890 13.31175041 255 111 3 0.000000 0.000000 0.000000
59.39199829 -54.51224899 13.16475010 255 107 4 0.000000 0.000000 0.000000
59.42950058 -54.49649811 13.18299961 255 107 3 0.000000 0.000000 0.000000
59.45175171 -54.05875015 12.99549961 255 107 3 0.000000 0.000000 0.000000
59.45299911 -54.03625107 13.02425003 255 107 3 0.000000 0.000000 0.000000
59.45624924 -54.09799957 13.21049976 255 107 3 0.000000 0.000000 0.000000
59.49599838 -53.80575180 13.07674980 255 107 3 0.000000 0.000000 0.000000
59.51350021 -53.74174881 13.07100010 255 107 3 0.000000 0.000000 0.000000
59.49674988 -53.75825119 13.07750034 255 107 3 0.000000 0.000000 0.000000
59.46175003 -53.73675156 13.10274982 255 107 3 0.000000 0.000000 0.000000
59.45624924 -54.13899994 13.24899960 255 107 3 0.000000 0.000000 0.000000
59.69075012 -53.66275024 12.54199982 255 108 3 0.000000 0.000000 0.000000
59.58950043 -53.60649872 12.58399963 255 108 3 0.000000 0.000000 0.000000
59.86624908 -53.60449982 12.80774975 255 109 3 0.000000 0.000000 0.000000
59.78924942 -53.29925156 12.91300011 255 109 3 0.000000 0.000000 0.000000
59.57424927 -53.69649887 12.73449993 255 108 3 0.000000 0.000000 0.000000
59.61100006 -53.69150162 12.92000008 255 108 3 0.000000 0.000000 0.000000
59.59899902 -53.56475067 12.92450047 255 108 3 0.000000 0.000000 0.000000
59.81774902 -53.19174957 12.68424988 255 109 3 0.000000 0.000000 0.000000
59.69124985 -53.03324890 12.86775017 255 108 3 0.000000 0.000000 0.000000
60.17274857 -53.77825165 13.35599995 255 111 3 0.000000 0.000000 0.000000
60.20949936 -53.12725067 13.48025036 255 111 3 0.000000 0.000000 0.000000
60.20949936 -53.04600143 13.48250008 255 111 3 0.000000 0.000000 0.000000
59.44900131 -53.52524948 13.04800034 255 107 3 0.000000 0.000000 0.000000
59.44950104 -53.61800003 13.14649963 255 107 3 0.000000 0.000000 0.000000
59.45074844 -53.55175018 13.14274979 255 107 3 0.000000 0.000000 0.000000
59.45425034 -53.39175034 13.13374996 255 107 3 0.000000 0.000000 0.000000
59.45475006 -53.57624817 13.31474972 255 107 3 0.000000 0.000000 0.000000
59.45574951 -53.64925003 13.42224979 255 107 3 0.000000 0.000000 0.000000
59.46075058 -53.41925049 13.40824986 255 107 3 0.000000 0.000000 0.000000
59.29800034 -54.63199997 12.95300007 255 107 4 0.000000 0.000000 0.000000
59.28174973 -54.50925064 12.95199966 255 106 4 0.000000 0.000000 0.000000
59.30324936 -54.44749832 12.96650028 255 107 4 0.000000 0.000000 0.000000
59.16550064 -54.34624863 12.88574982 255 106 4 0.000000 0.000000 0.000000
58.89250183 -54.66075134 12.93700027 255 105 4 0.000000 0.000000 0.000000
59.00699997 -54.43624878 12.93999958 255 105 4 0.000000 0.000000 0.000000
59.09550095 -54.30250168 12.87275028 255 105 4 0.000000 0.000000 0.000000
59.07799911 -54.29299927 12.90999985 255 105 4 0.000000 0.000000 0.000000
58.91899872 -54.38574982 12.94974995 255 105 4 0.000000 0.000000 0.000000
58.88824844 -54.09299850 12.62199974 255 104 4 0.000000 0.000000 0.000000
58.99024963 -53.82775116 12.81449986 255 105 4 0.000000 0.000000 0.000000
58.75424957 -54.54600143 12.94274998 255 104 4 0.000000 0.000000 0.000000
58.83774948 -53.98350143 12.48349953 255 104 4 0.000000 0.000000 0.000000
58.49475098 -53.68825150 12.57575035 255 102 4 0.000000 0.000000 0.000000
59.19224930 -54.65650177 13.00574970 255 106 4 0.000000 0.000000 0.000000
59.11999893 -54.70349884 13.00125027 255 106 4 0.000000 0.000000 0.000000
59.12350082 -54.67599869 13.11499977 255 106 4 0.000000 0.000000 0.000000
59.30474854 -54.43450165 13.01725006 255 107 4 0.000000 0.000000 0.000000
59.28575134 -54.47150040 13.05875015 255 106 4 0.000000 0.000000 0.000000
59.28900146 -54.33124924 13.04300022 255 106 4 0.000000 0.000000 0.000000
59.36275101 -54.25099945 13.05924988 255 107 4 0.000000 0.000000 0.000000
59.22150040 -54.36849976 13.10050011 255 106 4 0.000000 0.000000 0.000000
59.05199814 -54.67449951 13.01025009 255 105 4 0.000000 0.000000 0.000000
59.09075165 -54.62049866 13.10350037 255 105 4 0.000000 0.000000 0.000000
59.09524918 -54.48875046 13.10949993 255 105 4 0.000000 0.000000 0.000000
58.90274811 -54.48675156 13.07499981 255 105 4 0.000000 0.000000 0.000000
58.91199875 -54.68825150 13.13274956 255 105 4 0.000000 0.000000 0.000000
58.90000153 -54.59424973 13.13599968 255 105 4 0.000000 0.000000 0.000000
58.88449860 -54.52175140 13.14525032 255 104 4 0.000000 0.000000 0.000000
59.09749985 -54.35074997 13.01500034 255 105 4 0.000000 0.000000 0.000000
59.06425095 -54.39225006 13.10324955 255 105 4 0.000000 0.000000 0.000000
58.90999985 -54.54325104 13.44474983 255 105 4 0.000000 0.000000 0.000000
59.34849930 -54.09999847 13.07849979 255 107 4 0.000000 0.000000 0.000000
59.39075089 -53.88824844 13.10350037 255 107 4 0.000000 0.000000 0.000000
59.04624939 -53.84075165 13.07100010 255 105 4 0.000000 0.000000 0.000000
59.27574921 -54.00600052 13.47449970 255 106 4 0.000000 0.000000 0.000000
59.17375183 -53.99300003 13.48824978 255 106 4 0.000000 0.000000 0.000000
59.31050110 -53.74700165 13.24724960 255 106 4 0.000000 0.000000 0.000000
59.17699814 -53.75799942 13.33174992 255 106 4 0.000000 0.000000 0.000000
59.17599869 -53.84225082 13.38574982 255 106 4 0.000000 0.000000 0.000000
59.19400024 -53.86724854 13.42150021 255 106 4 0.000000 0.000000 0.000000
59.27825165 -53.82875061 13.37800026 255 106 4 0.000000 0.000000 0.000000
59.26100159 -53.83174896 13.41924953 255 106 4 0.000000 0.000000 0.000000
59.08425140 -53.98649979 13.34599972 255 105 4 0.000000 0.000000 0.000000
59.03599930 -53.97349930 13.42224979 255 105 4 0.000000 0.000000 0.000000
59.10150146 -53.93349838 13.35599995 255 105 4 0.000000 0.000000 0.000000
59.15924835 -53.70375061 13.28575039 255 106 4 0.000000 0.000000 0.000000
58.98625183 -53.92024994 13.43924999 255 105 4 0.000000 0.000000 0.000000
58.70600128 -54.56575012 13.06375027 255 104 4 0.000000 0.000000 0.000000
58.69174957 -54.56200027 13.10900021 255 104 4 0.000000 0.000000 0.000000
58.79175186 -54.36899948 13.40550041 255 104 4 0.000000 0.000000 0.000000
58.66999817 -54.42425156 13.48999977 255 103 4 0.000000 0.000000 0.000000
58.39324951 -53.96549988 13.21049976 255 102 5 0.000000 0.000000 0.000000
58.41374969 -53.92150116 13.23550034 255 102 4 0.000000 0.000000 0.000000
58.76599884 -54.12725067 13.29424953 255 104 4 0.000000 0.000000 0.000000
58.65024948 -54.08375168 13.46049976 255 103 4 0.000000 0.000000 0.000000
58.61574936 -54.07350159 13.39675045 255 103 4 0.000000 0.000000 0.000000
58.61800003 -52.87799835 12.61225033 255 103 4 0.000000 0.000000 0.000000
58.48925018 -52.93574905 12.81299973 255 102 4 0.000000 0.000000 0.000000
59.37924957 -53.53450012 12.99250031 255 107 4 0.000000 0.000000 0.000000
59.41500092 -53.47975159 13.06250000 255 107 4 0.000000 0.000000 0.000000
59.34799957 -53.60250092 13.13525009 255 107 4 0.000000 0.000000 0.000000
59.36550140 -53.59424973 13.23649979 255 107 4 0.000000 0.000000 0.000000
59.33525085 -53.58475113 13.30074978 255 107 4 0.000000 0.000000 0.000000
59.28475189 -53.57300186 13.33500004 255 106 4 0.000000 0.000000 0.000000
59.40399933 -53.66125107 13.39675045 255 107 4 0.000000 0.000000 0.000000
59.11050034 -53.61524963 13.28050041 255 105 4 0.000000 0.000000 0.000000
59.11125183 -53.59474945 13.28975010 255 105 4 0.000000 0.000000 0.000000
58.71075058 -53.20425034 13.48375034 255 103 4 0.000000 0.000000 0.000000
58.81325150 -52.71175003 13.33325005 255 104 4 0.000000 0.000000 0.000000
58.79349899 -52.80099869 13.39124966 255 104 4 0.000000 0.000000 0.000000
58.78099823 -52.81949997 13.50825024 255 104 4 0.000000 0.000000 0.000000
58.76399994 -52.80450058 13.49899960 255 103 4 0.000000 0.000000 0.000000
58.76900101 -52.67824936 13.46450043 255 103 4 0.000000 0.000000 0.000000
58.71099854 -52.71625137 13.29874992 255 103 4 0.000000 0.000000 0.000000
60.37675095 -53.21500015 13.48674965 255 112 3 0.000000 0.000000 0.000000
60.31124878 -53.09075165 13.59224987 255 111 3 0.000000 0.000000 0.000000
60.12850189 -53.07949829 13.57775021 255 110 3 0.000000 0.000000 0.000000
60.14400101 -53.09474945 13.61075020 255 110 3 0.000000 0.000000 0.000000
59.73474884 -53.58599854 13.59799957 255 108 3 0.000000 0.000000 0.000000
59.44350052 -53.64225006 13.65275002 255 107 3 0.000000 0.000000 0.000000
59.51824951 -53.62025070 13.78649998 255 107 3 0.000000 0.000000 0.000000
59.51874924 -53.62049866 13.80749989 255 107 3 0.000000 0.000000 0.000000
59.84275055 -53.20100021 13.68974972 255 109 3 0.000000 0.000000 0.000000
59.66025162 -53.08324814 13.69550037 255 108 3 0.000000 0.000000 0.000000
59.59524918 -53.19075012 13.87224960 255 108 3 0.000000 0.000000 0.000000
59.63325119 -53.20249939 14.00074959 255 108 3 0.000000 0.000000 0.000000
59.64875031 -53.08800125 13.97150040 255 108 3 0.000000 0.000000 0.000000
59.56475067 -53.21775055 13.91625023 255 108 3 0.000000 0.000000 0.000000
60.03575134 -52.83200073 14.42949963 255 110 3 0.000000 0.000000 0.000000
59.65050125 -53.08150101 14.02999973 255 108 3 0.000000 0.000000 0.000000
59.58625031 -53.12474823 14.01924992 255 108 3 0.000000 0.000000 0.000000
59.16825104 -54.34949875 13.72649956 255 106 4 0.000000 0.000000 0.000000
58.98225021 -54.51224899 13.50574970 255 105 4 0.000000 0.000000 0.000000
58.89225006 -54.57624817 13.53524971 255 104 4 0.000000 0.000000 0.000000
58.95024872 -54.53224945 13.64925003 255 105 4 0.000000 0.000000 0.000000
58.93724823 -54.41624832 13.72274971 255 105 4 0.000000 0.000000 0.000000
58.87149811 -54.35675049 13.74825001 255 104 4 0.000000 0.000000 0.000000
59.20399857 -54.26525116 13.75975037 255 106 4 0.000000 0.000000 0.000000
59.19200134 -54.24974823 13.80900002 255 106 4 0.000000 0.000000 0.000000
58.96350098 -54.32350159 13.85124969 255 105 4 0.000000 0.000000 0.000000
59.15475082 -54.11650085 13.62250042 255 106 4 0.000000 0.000000 0.000000
59.19075012 -54.04875183 13.51650047 255 106 4 0.000000 0.000000 0.000000
59.20100021 -53.89199829 13.71899986 255 106 4 0.000000 0.000000 0.000000
59.09825134 -54.17874908 13.55749989 255 105 4 0.000000 0.000000 0.000000
59.06975174 -54.05575180 13.57499981 255 105 4 0.000000 0.000000 0.000000
58.98099899 -54.16825104 13.58749962 255 105 4 0.000000 0.000000 0.000000
59.09975052 -54.19950104 13.63374996 255 105 4 0.000000 0.000000 0.000000
59.10725021 -53.92599869 13.57374954 255 105 4 0.000000 0.000000 0.000000
59.02774811 -53.88899994 13.66075039 255 105 4 0.000000 0.000000 0.000000
59.01575089 -53.73075104 13.68424988 255 105 4 0.000000 0.000000 0.000000
58.96374893 -53.69475174 13.66275024 255 105 4 0.000000 0.000000 0.000000
59.16175079 -54.00175095 13.76025009 255 106 4 0.000000 0.000000 0.000000
59.22100067 -53.73799896 13.77624989 255 106 4 0.000000 0.000000 0.000000
59.23925018 -53.80699921 13.84525013 255 106 4 0.000000 0.000000 0.000000
59.10324860 -54.19725037 13.77700043 255 105 4 0.000000 0.000000 0.000000
59.11074829 -54.06074905 13.88274956 255 105 4 0.000000 0.000000 0.000000
59.11949921 -53.74124908 13.80200005 255 105 4 0.000000 0.000000 0.000000
59.17250061 -53.79574966 13.91600037 255 106 4 0.000000 0.000000 0.000000
58.75849915 -54.54074860 13.69775009 255 104 4 0.000000 0.000000 0.000000
58.75875092 -54.54100037 13.71875000 255 104 4 0.000000 0.000000 0.000000
58.46749878 -54.35350037 13.61550045 255 102 4 0.000000 0.000000 0.000000
58.55775070 -54.38425064 13.74800014 255 103 4 0.000000 0.000000 0.000000
58.63999939 -54.52275085 13.87950039 255 103 4 0.000000 0.000000 0.000000
58.62424850 -54.48099899 13.89949989 255 103 4 0.000000 0.000000 0.000000
58.79199982 -54.28575134 13.99199963 255 104 4 0.000000 0.000000 0.000000
58.87825012 -53.72750092 13.65400028 255 104 4 0.000000 0.000000 0.000000
58.89274979 -54.01174927 14.01350021 255 104 4 0.000000 0.000000 0.000000
58.82374954 -53.98049927 14.00699997 255 104 4 0.000000 0.000000 0.000000
58.77399826 -53.95449829 13.95450020 255 104 4 0.000000 0.000000 0.000000
58.65024948 -53.98300171 13.97449970 255 103 4 0.000000 0.000000 0.000000
59.01974869 -53.90800095 14.09500027 255 105 4 0.000000 0.000000 0.000000
59.02074814 -53.90774918 14.13700008 255 105 4 0.000000 0.000000 0.000000
58.64775085 -54.46025085 14.05700016 255 103 4 0.000000 0.000000 0.000000
58.62825012 -54.50899887 14.10350037 255 103 4 0.000000 0.000000 0.000000
58.59875107 -54.41474915 14.07450008 255 103 4 0.000000 0.000000 0.000000
58.66825104 -54.07049942 14.13875008 255 103 4 0.000000 0.000000 0.000000
58.65549850 -53.94124985 14.10099983 255 103 4 0.000000 0.000000 0.000000
58.78099823 -53.86500168 14.06050014 255 104 4 0.000000 0.000000 0.000000
58.59999847 -53.97525024 14.02824974 255 103 4 0.000000 0.000000 0.000000
58.62075043 -53.97249985 14.07250023 255 103 4 0.000000 0.000000 0.000000
59.37950134 -53.53675079 13.71650028 255 107 4 0.000000 0.000000 0.000000
59.11700058 -53.21524811 13.58450031 255 105 4 0.000000 0.000000 0.000000
59.08375168 -53.18949890 13.62250042 255 105 4 0.000000 0.000000 0.000000
59.10374832 -53.20375061 13.73499966 255 105 4 0.000000 0.000000 0.000000
59.08599854 -53.19549942 13.72150040 255 105 4 0.000000 0.000000 0.000000
59.39825058 -53.62474823 13.81750011 255 107 4 0.000000 0.000000 0.000000
59.00400162 -53.67549896 13.76350021 255 105 4 0.000000 0.000000 0.000000
59.03874969 -53.69224930 13.80574989 255 105 4 0.000000 0.000000 0.000000
58.93500137 -53.68399811 13.81849957 255 104 4 0.000000 0.000000 0.000000
58.97074890 -53.68299866 13.90649986 255 105 4 0.000000 0.000000 0.000000
59.33700180 -53.19874954 13.68474960 255 106 4 0.000000 0.000000 0.000000
59.29050064 -53.08224869 13.71899986 255 106 4 0.000000 0.000000 0.000000
59.30924988 -53.06275177 13.71675014 255 106 4 0.000000 0.000000 0.000000
59.15050125 -53.17850113 13.55500031 255 105 4 0.000000 0.000000 0.000000
59.07949829 -52.97050095 13.69900036 255 105 4 0.000000 0.000000 0.000000
58.98949814 -53.02799988 13.65425014 255 105 4 0.000000 0.000000 0.000000
58.99100113 -53.04100037 13.72074986 255 105 4 0.000000 0.000000 0.000000
59.17625046 -53.12274933 13.80274963 255 106 4 0.000000 0.000000 0.000000
59.07675171 -53.11999893 13.80749989 255 105 4 0.000000 0.000000 0.000000
59.09400177 -53.06824875 13.85175037 255 105 4 0.000000 0.000000 0.000000
58.99174881 -53.12675095 13.87899971 255 105 4 0.000000 0.000000 0.000000
59.11299896 -53.10049820 13.95475006 255 105 4 0.000000 0.000000 0.000000
59.09600067 -53.06250000 13.92650032 255 105 4 0.000000 0.000000 0.000000
59.04875183 -53.08300018 14.01350021 255 105 4 0.000000 0.000000 0.000000
58.99625015 -53.05099869 13.94725037 255 105 4 0.000000 0.000000 0.000000
59.11650085 -52.88774872 13.80099964 255 105 4 0.000000 0.000000 0.000000
58.89974976 -53.66975021 13.74100018 255 104 4 0.000000 0.000000 0.000000
58.85150146 -53.17499924 13.72900009 255 104 4 0.000000 0.000000 0.000000
58.78350067 -53.17850113 13.66024971 255 104 4 0.000000 0.000000 0.000000
58.81750107 -53.20425034 13.71675014 255 104 4 0.000000 0.000000 0.000000
58.64625168 -53.22275162 13.63924980 255 103 4 0.000000 0.000000 0.000000
58.64725113 -53.25225067 13.73149967 255 103 4 0.000000 0.000000 0.000000
58.61700058 -53.18550110 13.71525002 255 103 4 0.000000 0.000000 0.000000
58.90425110 -53.17549896 13.78250027 255 104 4 0.000000 0.000000 0.000000
58.77275085 -53.22425079 13.89424992 255 104 4 0.000000 0.000000 0.000000
58.77375031 -53.17649841 13.85175037 255 104 4 0.000000 0.000000 0.000000
58.78924942 -53.19874954 13.91349983 255 104 4 0.000000 0.000000 0.000000
58.75600052 -53.26475143 14.00774956 255 103 4 0.000000 0.000000 0.000000
58.44874954 -53.23625183 13.79399967 255 102 5 0.000000 0.000000 0.000000
58.87575150 -53.00674820 13.73849964 255 104 4 0.000000 0.000000 0.000000
58.77399826 -53.07049942 13.68400002 255 104 4 0.000000 0.000000 0.000000
58.74674988 -52.92375183 13.75724983 255 103 4 0.000000 0.000000 0.000000
58.83375168 -52.78075027 13.62600040 255 104 4 0.000000 0.000000 0.000000
58.83150101 -52.87274933 13.69025040 255 104 4 0.000000 0.000000 0.000000
58.76675034 -52.86024857 13.70400047 255 103 4 0.000000 0.000000 0.000000
58.62350082 -53.04875183 13.69674969 255 103 4 0.000000 0.000000 0.000000
58.60974884 -52.98049927 13.68500042 255 103 4 0.000000 0.000000 0.000000
58.60850143 -53.01725006 13.71850014 255 103 4 0.000000 0.000000 0.000000
58.55524826 -53.07025146 13.67675018 255 102 4 0.000000 0.000000 0.000000
58.57975006 -52.90299988 13.66749954 255 103 4 0.000000 0.000000 0.000000
58.84149933 -53.10974884 13.92199993 255 104 4 0.000000 0.000000 0.000000
58.60749817 -53.08499908 13.80949974 255 103 4 0.000000 0.000000 0.000000
58.71450043 -52.96250153 13.87325001 255 103 4 0.000000 0.000000 0.000000
58.54074860 -53.06874847 13.81875038 255 102 4 0.000000 0.000000 0.000000
58.71374893 -52.99325180 13.90824986 255 103 4 0.000000 0.000000 0.000000
58.50424957 -52.88574982 13.95125008 255 102 4 0.000000 0.000000 0.000000
58.70000076 -52.86175156 13.80675030 255 103 4 0.000000 0.000000 0.000000
58.65250015 -52.79124832 13.78674984 255 103 4 0.000000 0.000000 0.000000
58.65325165 -52.79550171 13.81075001 255 103 4 0.000000 0.000000 0.000000
58.57324982 -52.79949951 13.81799984 255 102 4 0.000000 0.000000 0.000000
58.88100052 -53.08150101 14.05525017 255 104 4 0.000000 0.000000 0.000000
58.82849884 -53.13600159 14.02700043 255 104 4 0.000000 0.000000 0.000000
60.40924835 -51.91624832 12.54500008 255 112 3 0.000000 0.000000 0.000000
60.49349976 -51.85575104 12.61925030 255 112 2 0.000000 0.000000 0.000000
60.39625168 -51.92024994 12.64299965 255 112 3 0.000000 0.000000 0.000000
60.42774963 -51.77774811 12.61299992 255 112 2 0.000000 0.000000 0.000000
60.15950012 -51.94675064 12.71650028 255 111 3 0.000000 0.000000 0.000000
60.19100189 -51.80725098 12.72999954 255 111 3 0.000000 0.000000 0.000000
60.35150146 -51.79724884 12.73700047 255 112 3 0.000000 0.000000 0.000000
60.24150085 -51.78950119 12.82874966 255 111 3 0.000000 0.000000 0.000000
60.32975006 -51.60475159 12.59350014 255 112 3 0.000000 0.000000 0.000000
60.12200165 -51.54449844 12.58024979 255 110 3 0.000000 0.000000 0.000000
60.30250168 -51.58924866 12.71650028 255 111 3 0.000000 0.000000 0.000000
60.31575012 -51.48749924 12.69474983 255 111 3 0.000000 0.000000 0.000000
60.28475189 -51.48274994 12.69900036 255 111 3 0.000000 0.000000 0.000000
60.25500107 -51.49250031 12.72624969 255 111 3 0.000000 0.000000 0.000000
60.12324905 -51.49950027 12.62325001 255 110 3 0.000000 0.000000 0.000000
60.25699997 -51.52275085 12.81649971 255 111 3 0.000000 0.000000 0.000000
60.19224930 -51.47499847 12.76175022 255 111 3 0.000000 0.000000 0.000000
60.24074936 -51.47475052 12.82600021 255 111 3 0.000000 0.000000 0.000000
60.65274811 -50.77600098 12.65824986 255 113 2 0.000000 0.000000 0.000000
60.49824905 -50.77700043 12.65275002 255 112 2 0.000000 0.000000 0.000000
60.51525116 -50.74874878 12.68999958 255 113 2 0.000000 0.000000 0.000000
60.47050095 -50.78725052 12.73824978 255 112 2 0.000000 0.000000 0.000000
60.43975067 -50.84424973 12.72150040 255 112 2 0.000000 0.000000 0.000000
60.30924988 -50.79949951 12.52700043 255 111 3 0.000000 0.000000 0.000000
60.41999817 -50.73400116 12.59949970 255 112 2 0.000000 0.000000 0.000000
60.37250137 -50.77574921 12.61400032 255 112 3 0.000000 0.000000 0.000000
60.23199844 -50.85049820 12.49699974 255 111 3 0.000000 0.000000 0.000000
60.24850082 -50.86024857 12.51074982 255 111 3 0.000000 0.000000 0.000000
60.20299911 -50.71549988 12.52725029 255 111 3 0.000000 0.000000 0.000000
60.42224884 -50.82574844 12.65799999 255 112 2 0.000000 0.000000 0.000000
60.21974945 -50.70475006 12.66024971 255 111 3 0.000000 0.000000 0.000000
60.39300156 -50.72100067 12.80424976 255 112 3 0.000000 0.000000 0.000000
60.09725189 -50.71775055 12.65824986 255 110 3 0.000000 0.000000 0.000000
60.30099869 -51.59225082 13.32374954 255 111 3 0.000000 0.000000 0.000000
59.99150085 -50.98075104 13.48124981 255 110 3 0.000000 0.000000 0.000000
60.52849960 -52.33050156 13.82950020 255 112 2 0.000000 0.000000 0.000000
60.31700134 -52.47574997 13.86324978 255 111 3 0.000000 0.000000 0.000000
60.35174942 -52.32175064 13.98925018 255 111 3 0.000000 0.000000 0.000000
60.56299973 -52.19575119 13.98200035 255 113 2 0.000000 0.000000 0.000000
60.59075165 -51.97499847 14.00574970 255 113 2 0.000000 0.000000 0.000000
60.56074905 -51.94675064 13.98425007 255 113 2 0.000000 0.000000 0.000000
60.47750092 -51.86825180 13.90050030 255 112 2 0.000000 0.000000 0.000000
60.33100128 -51.76025009 13.80675030 255 111 3 0.000000 0.000000 0.000000
59.88325119 -51.96524811 13.98674965 255 109 3 0.000000 0.000000 0.000000
60.35575104 -52.52849960 14.12250042 255 111 3 0.000000 0.000000 0.000000
60.46924973 -52.42200089 14.06000042 255 112 2 0.000000 0.000000 0.000000
60.47124863 -52.45050049 14.12874985 255 112 2 0.000000 0.000000 0.000000
60.53324890 -52.33024979 14.01200008 255 112 2 0.000000 0.000000 0.000000
60.55099869 -52.33675003 14.13249969 255 112 2 0.000000 0.000000 0.000000
60.43624878 -52.35274887 14.11025047 255 112 3 0.000000 0.000000 0.000000
60.52275085 -52.51800156 14.18850040 255 112 2 0.000000 0.000000 0.000000
60.34275055 -52.45449829 14.18725014 255 111 3 0.000000 0.000000 0.000000
60.34125137 -52.33800125 14.15075016 255 111 3 0.000000 0.000000 0.000000
60.40700150 -52.33499908 14.25899982 255 112 3 0.000000 0.000000 0.000000
60.29000092 -52.41574860 14.04125023 255 111 3 0.000000 0.000000 0.000000
60.25650024 -52.50650024 14.07775021 255 111 3 0.000000 0.000000 0.000000
60.55025101 -52.26425171 14.12125015 255 112 2 0.000000 0.000000 0.000000
60.56224823 -52.04150009 14.00800037 255 113 2 0.000000 0.000000 0.000000
60.48324966 -52.06975174 14.05875015 255 112 2 0.000000 0.000000 0.000000
60.59075165 -51.85824966 14.04825020 255 113 2 0.000000 0.000000 0.000000
60.27349854 -52.16075134 14.07450008 255 111 3 0.000000 0.000000 0.000000
59.95050049 -51.96549988 14.06050014 255 109 3 0.000000 0.000000 0.000000
59.91699982 -51.86399841 14.05850029 255 109 3 0.000000 0.000000 0.000000
60.59574890 -51.71374893 13.60099983 255 113 2 0.000000 0.000000 0.000000
60.56449890 -51.68724823 13.61900043 255 113 2 0.000000 0.000000 0.000000
60.56275177 -51.54000092 13.61425018 255 113 2 0.000000 0.000000 0.000000
60.54949951 -51.52550125 13.71325016 255 113 2 0.000000 0.000000 0.000000
60.48400116 -51.61975098 13.64999962 255 112 2 0.000000 0.000000 0.000000
60.42100143 -51.59299850 13.67774963 255 112 3 0.000000 0.000000 0.000000
60.62400055 -51.43925095 13.63774967 255 113 2 0.000000 0.000000 0.000000
60.51699829 -51.37699890 13.70724964 255 112 2 0.000000 0.000000 0.000000
60.24800110 -51.70700073 13.75125027 255 111 3 0.000000 0.000000 0.000000
60.37525177 -51.57550049 13.70499992 255 112 3 0.000000 0.000000 0.000000
60.38850021 -51.36999893 13.72249985 255 112 3 0.000000 0.000000 0.000000
60.38724899 -51.33724976 13.67199993 255 112 3 0.000000 0.000000 0.000000
60.52299881 -51.55550003 13.88525009 255 112 2 0.000000 0.000000 0.000000
60.52600098 -51.60224915 13.98674965 255 112 2 0.000000 0.000000 0.000000
60.41225052 -51.61774826 13.97850037 255 112 3 0.000000 0.000000 0.000000
60.42924881 -51.61774826 14.00800037 255 112 3 0.000000 0.000000 0.000000
60.54000092 -51.48574829 14.00975037 255 112 2 0.000000 0.000000 0.000000
60.47499847 -51.49150085 13.90450001 255 112 2 0.000000 0.000000 0.000000
60.46125031 -51.48799896 14.00000000 255 112 2 0.000000 0.000000 0.000000
60.28599930 -51.63349915 13.93649960 255 111 3 0.000000 0.000000 0.000000
60.41799927 -50.78874969 13.74950027 255 112 3 0.000000 0.000000 0.000000
60.56275177 -51.03649902 13.80675030 255 113 2 0.000000 0.000000 0.000000
60.48300171 -50.95475006 13.82674980 255 112 2 0.000000 0.000000 0.000000
60.04275131 -51.50574875 13.66100025 255 110 3 0.000000 0.000000 0.000000
60.02600098 -51.45949936 13.66724968 255 110 3 0.000000 0.000000 0.000000
60.02674866 -51.45050049 13.70100021 255 110 3 0.000000 0.000000 0.000000
59.91374969 -51.40000153 13.74450016 255 109 3 0.000000 0.000000 0.000000
59.90024948 -51.36349869 13.74800014 255 109 3 0.000000 0.000000 0.000000
60.01074982 -51.22874832 13.73449993 255 110 3 0.000000 0.000000 0.000000
59.86724854 -51.35549927 13.75024986 255 109 3 0.000000 0.000000 0.000000
59.64675140 -51.24325180 13.69900036 255 108 3 0.000000 0.000000 0.000000
59.72600174 -51.25299835 13.77099991 255 108 3 0.000000 0.000000 0.000000
59.72750092 -51.18399811 13.77200031 255 108 3 0.000000 0.000000 0.000000
60.00925064 -51.59500122 13.78874969 255 110 3 0.000000 0.000000 0.000000
59.99475098 -51.65525055 13.83024979 255 110 3 0.000000 0.000000 0.000000
59.97900009 -51.54425049 13.81774998 255 110 3 0.000000 0.000000 0.000000
59.95050049 -51.48424911 13.87325001 255 109 3 0.000000 0.000000 0.000000
60.08174896 -51.62200165 14.01974964 255 110 3 0.000000 0.000000 0.000000
59.96324921 -51.67924881 13.91149998 255 109 3 0.000000 0.000000 0.000000
59.98249817 -51.58874893 13.97599983 255 110 3 0.000000 0.000000 0.000000
60.06150055 -51.42699814 13.83600044 255 110 3 0.000000 0.000000 0.000000
60.10874939 -51.29024887 13.84200001 255 110 3 0.000000 0.000000 0.000000
60.05049896 -51.22000122 13.89624977 255 110 3 0.000000 0.000000 0.000000
59.98025131 -51.36949921 13.81000042 255 110 3 0.000000 0.000000 0.000000
59.88449860 -51.41025162 13.78899956 255 109 3 0.000000 0.000000 0.000000
59.98099899 -51.25849915 13.79775047 255 110 3 0.000000 0.000000 0.000000
59.95124817 -51.24874878 13.81700039 255 109 3 0.000000 0.000000 0.000000
60.09650040 -51.42774963 13.92724991 255 110 3 0.000000 0.000000 0.000000
59.95299911 -51.35625076 13.93124962 255 109 3 0.000000 0.000000 0.000000
59.93550110 -51.41474915 13.90324974 255 109 3 0.000000 0.000000 0.000000
59.95375061 -51.25949860 13.92150021 255 109 3 0.000000 0.000000 0.000000
59.85499954 -51.37174988 13.81124973 255 109 3 0.000000 0.000000 0.000000
59.79024887 -51.32225037 13.79074955 255 109 3 0.000000 0.000000 0.000000
59.79199982 -51.26549911 13.81949997 255 109 3 0.000000 0.000000 0.000000
59.76274872 -51.19499969 13.82900047 255 108 3 0.000000 0.000000 0.000000
59.79425049 -51.26725006 13.90124989 255 109 3 0.000000 0.000000 0.000000
59.74874878 -51.19324875 13.93500042 255 108 3 0.000000 0.000000 0.000000
60.04249954 -51.05400085 13.54549980 255 110 3 0.000000 0.000000 0.000000
60.09199905 -51.00249863 13.66549969 255 110 3 0.000000 0.000000 0.000000
59.99625015 -51.18225098 13.74524975 255 110 3 0.000000 0.000000 0.000000
59.99750137 -50.95849991 13.72175026 255 110 3 0.000000 0.000000 0.000000
59.91875076 -51.00650024 13.76900005 255 109 3 0.000000 0.000000 0.000000
59.90224838 -50.99124908 13.67525005 255 109 3 0.000000 0.000000 0.000000
59.85649872 -50.98925018 13.69124985 255 109 3 0.000000 0.000000 0.000000
59.82249832 -51.00299835 13.68599987 255 109 3 0.000000 0.000000 0.000000
60.03324890 -51.17800140 13.86649990 255 110 3 0.000000 0.000000 0.000000
60.12575150 -51.02474976 13.79424953 255 110 3 0.000000 0.000000 0.000000
60.11024857 -50.98649979 13.85550022 255 110 3 0.000000 0.000000 0.000000
60.01399994 -50.97724915 13.79024982 255 110 3 0.000000 0.000000 0.000000
60.05125046 -51.16699982 13.91174984 255 110 3 0.000000 0.000000 0.000000
60.11175156 -50.97774887 13.90699959 255 110 3 0.000000 0.000000 0.000000
60.06874847 -51.01074982 14.00625038 255 110 3 0.000000 0.000000 0.000000
59.98574829 -51.10749817 13.92399979 255 110 3 0.000000 0.000000 0.000000
59.79774857 -51.02149963 13.89900017 255 109 3 0.000000 0.000000 0.000000
59.89350128 -51.10324860 13.99174976 255 109 3 0.000000 0.000000 0.000000
59.65549850 -51.09825134 13.92175007 255 108 3 0.000000 0.000000 0.000000
59.79999924 -50.87049866 13.90324974 255 109 3 0.000000 0.000000 0.000000
59.76874924 -50.87725067 13.86699963 255 108 3 0.000000 0.000000 0.000000
59.77225113 -50.87149811 14.00049973 255 108 3 0.000000 0.000000 0.000000
60.12974930 -51.60699844 14.05150032 255 110 3 0.000000 0.000000 0.000000
60.13550186 -51.62474823 14.27350044 255 110 3 0.000000 0.000000 0.000000
60.14825058 -51.38249969 14.11174965 255 110 3 0.000000 0.000000 0.000000
60.14899826 -51.40299988 14.14474964 255 110 3 0.000000 0.000000 0.000000
60.13700104 -51.53974915 14.31700039 255 110 3 0.000000 0.000000 0.000000
60.63299942 -51.22375107 14.08425045 255 113 2 0.000000 0.000000 0.000000
60.05350113 -51.36999893 14.05000019 255 110 3 0.000000 0.000000 0.000000
60.05625153 -51.37274933 14.14675045 255 110 3 0.000000 0.000000 0.000000
60.10100174 -51.28499985 14.07199955 255 110 3 0.000000 0.000000 0.000000
59.98899841 -51.20975113 14.09125042 255 110 3 0.000000 0.000000 0.000000
59.97249985 -51.37025070 14.15974998 255 109 3 0.000000 0.000000 0.000000
59.99100113 -51.46200180 14.24849987 255 110 3 0.000000 0.000000 0.000000
59.94675064 -51.28125000 14.27250004 255 109 3 0.000000 0.000000 0.000000
59.81700134 -51.46049881 14.23725033 255 109 3 0.000000 0.000000 0.000000
59.86500168 -51.24325180 14.14050007 255 109 3 0.000000 0.000000 0.000000
59.65575027 -51.26599884 14.05700016 255 108 3 0.000000 0.000000 0.000000
59.67499924 -51.30599976 14.20149994 255 108 3 0.000000 0.000000 0.000000
59.68899918 -51.26074982 14.20024967 255 108 3 0.000000 0.000000 0.000000
60.05950165 -51.50949860 14.31149960 255 110 3 0.000000 0.000000 0.000000
59.94599915 -51.59799957 14.38350010 255 109 3 0.000000 0.000000 0.000000
59.91474915 -51.58324814 14.40625000 255 109 3 0.000000 0.000000 0.000000
60.11125183 -51.55400085 14.52274990 255 110 3 0.000000 0.000000 0.000000
60.07925034 -51.51525116 14.52925014 255 110 3 0.000000 0.000000 0.000000
59.96374893 -51.61349869 14.42800045 255 109 3 0.000000 0.000000 0.000000
60.04425049 -51.22674942 14.30200005 255 110 3 0.000000 0.000000 0.000000
59.92824936 -51.43849945 14.31474972 255 109 3 0.000000 0.000000 0.000000
59.96324921 -51.33475113 14.31350040 255 109 3 0.000000 0.000000 0.000000
59.89899826 -51.30474854 14.28849983 255 109 3 0.000000 0.000000 0.000000
59.81499863 -51.69525146 14.29275036 255 109 3 0.000000 0.000000 0.000000
59.88249969 -51.35824966 14.33850002 255 109 3 0.000000 0.000000 0.000000
59.82474899 -51.24774933 14.41024971 255 109 3 0.000000 0.000000 0.000000
59.74024963 -51.27099991 14.30974960 255 108 3 0.000000 0.000000 0.000000
59.75775146 -51.30400085 14.34449959 255 108 3 0.000000 0.000000 0.000000
59.70999908 -51.20999908 14.29500008 255 108 3 0.000000 0.000000 0.000000
59.67950058 -51.23949814 14.32400036 255 108 3 0.000000 0.000000 0.000000
60.01025009 -51.17300034 14.27050018 255 110 3 0.000000 0.000000 0.000000
59.91675186 -51.08475113 14.26525021 255 109 3 0.000000 0.000000 0.000000
59.86650085 -51.09099960 14.12950039 255 109 3 0.000000 0.000000 0.000000
59.89675140 -50.99649811 14.05850029 255 109 3 0.000000 0.000000 0.000000
59.85074997 -50.99800110 14.10499954 255 109 3 0.000000 0.000000 0.000000
59.80474854 -51.09674835 14.20800018 255 109 3 0.000000 0.000000 0.000000
59.70999908 -51.08324814 14.21399975 255 108 3 0.000000 0.000000 0.000000
59.67874908 -51.10824966 14.20425034 255 108 3 0.000000 0.000000 0.000000
59.68000031 -51.08074951 14.23025036 255 108 3 0.000000 0.000000 0.000000
59.72800064 -50.99224854 14.19250011 255 108 3 0.000000 0.000000 0.000000
59.79199982 -51.19174957 14.38099957 255 108 3 0.000000 0.000000 0.000000
58.67575073 -52.59524918 13.58125019 255 103 4 0.000000 0.000000 0.000000
59.55175018 -51.90750122 14.25549984 255 107 3 0.000000 0.000000 0.000000
59.52050018 -51.90100098 14.32474995 255 107 3 0.000000 0.000000 0.000000
59.50524902 -51.79550171 14.28849983 255 107 3 0.000000 0.000000 0.000000
59.60250092 -51.30799866 13.81324959 255 108 3 0.000000 0.000000 0.000000
59.57424927 -51.27474976 13.93999958 255 107 3 0.000000 0.000000 0.000000
59.59524918 -50.87099838 13.82499981 255 107 3 0.000000 0.000000 0.000000
59.59424973 -51.31575012 14.15750027 255 107 3 0.000000 0.000000 0.000000
59.64175034 -51.23725128 14.13974953 255 108 3 0.000000 0.000000 0.000000
59.56375122 -51.34375000 14.20699978 255 107 3 0.000000 0.000000 0.000000
59.59550095 -51.29349899 14.18400002 255 107 3 0.000000 0.000000 0.000000
59.58174896 -51.28174973 14.23600006 255 107 3 0.000000 0.000000 0.000000
59.63150024 -51.30300140 14.30875015 255 108 3 0.000000 0.000000 0.000000
59.58499908 -51.27524948 14.35350037 255 107 3 0.000000 0.000000 0.000000
59.58425140 -51.14175034 14.20650005 255 107 3 0.000000 0.000000 0.000000
57.42124939 -55.51824951 11.17724991 255 98 5 0.000000 0.000000 0.000000
57.39025116 -55.23775101 11.23750019 255 98 5 0.000000 0.000000 0.000000
57.31874847 -54.68299866 11.41950035 255 97 5 0.000000 0.000000 0.000000
57.39925003 -55.92100143 11.57975006 255 98 5 0.000000 0.000000 0.000000
